ncols        119
nrows        38
xllcorner    293236.25
yllcorner    6177997.75
cellsize     0.500000000000
NODATA_value  -9999
42.182399749755859375 42.17710113525390625 42.173000335693359375 42.16590118408203125 42.14820098876953125 42.13050079345703125 42.11280059814453125 42.09510040283203125 42.077999114990234375 42.060398101806640625 42.04270172119140625 42.02500152587890625 42.00730133056640625 41.98960113525390625 41.9730987548828125 41.95709991455078125 41.940601348876953125 41.924098968505859375 41.908199310302734375 41.89170074462890625 41.8751983642578125 41.85919952392578125 41.842700958251953125 41.826198577880859375 41.810298919677734375 41.79380035400390625 41.777301788330078125 41.76129913330078125 41.744800567626953125 41.728900909423828125 41.712398529052734375 41.69589996337890625 41.4281005859375 41.119701385498046875 40.811199188232421875 40.50279998779296875 40.194400787353515625 39.869998931884765625 39.5084991455078125 39.146999359130859375 39.012500762939453125 39.01309967041015625 39.01309967041015625 39.013698577880859375 39.013698577880859375 39.014301300048828125 39.014301300048828125 39.014301300048828125 39.01490020751953125 39.01490020751953125 39.110401153564453125 39.40000152587890625 39.6930999755859375 39.98619842529296875 40.27989959716796875 40.573001861572265625 40.866100311279296875 40.928600311279296875 40.935699462890625 40.94219970703125 40.949298858642578125 40.955699920654296875 40.962200164794921875 40.96929931640625 40.975799560546875 40.9822998046875 40.989398956298828125 40.995800018310546875 41.002300262451171875 41.00820159912109375 41.01409912109375 41.020000457763671875 41.026500701904296875 41.031200408935546875 41.0364990234375 41.041301727294921875 41.046001434326171875 41.050701141357421875 41.055400848388671875 41.060100555419921875 41.1156005859375 41.181598663330078125 41.223499298095703125 41.24530029296875 41.266498565673828125 41.269500732421875 41.271800994873046875 41.274799346923828125 41.27719879150390625 41.280101776123046875 41.282501220703125 41.285400390625 41.28839874267578125 41.296001434326171875 41.303699493408203125 41.3114013671875 41.319000244140625 41.32669830322265625 41.334400177001953125 41.341999053955078125 41.349700927734375 41.356800079345703125 41.364398956298828125 41.375598907470703125 41.387401580810546875 41.399200439453125 41.410999298095703125 41.422199249267578125 41.43399810791015625 41.44580078125 41.457599639892578125 41.468799591064453125 41.48059844970703125 41.490100860595703125 41.4989013671875 41.50830078125 41.517200469970703125 41.526599884033203125 41.53549957275390625
42.187099456787109375 42.1829986572265625 42.179500579833984375 42.1753997802734375 42.1587982177734375 42.141101837158203125 42.123500823974609375 42.105800628662109375 42.088100433349609375 42.070400238037109375 42.052700042724609375 42.0355987548828125 42.0178985595703125 42.0001983642578125 41.9824981689453125 41.964801788330078125 41.947101593017578125 41.929401397705078125 41.911701202392578125 41.89459991455078125 41.87689971923828125 41.859798431396484375 41.843898773193359375 41.82740020751953125 41.810901641845703125 41.7949981689453125 41.778400421142578125 41.762500762939453125 41.745998382568359375 41.72949981689453125 41.71360015869140625 41.68109893798828125 41.372100830078125 41.063701629638671875 40.755199432373046875 40.44680023193359375 40.138301849365234375 39.829898834228515625 39.5214996337890625 39.174701690673828125 39.01309967041015625 39.013698577880859375 39.013698577880859375 39.014301300048828125 39.014301300048828125 39.01490020751953125 39.01490020751953125 39.01490020751953125 39.015399932861328125 39.015399932861328125 39.093898773193359375 39.3574981689453125 39.6204986572265625 39.910701751708984375 40.203800201416015625 40.496898651123046875 40.790599822998046875 40.92800140380859375 40.935100555419921875 40.941600799560546875 40.948699951171875 40.95510101318359375 40.96160125732421875 40.968700408935546875 40.975200653076171875 40.981700897216796875 40.987598419189453125 40.993499755859375 40.999401092529296875 41.005901336669921875 41.011798858642578125 41.017101287841796875 41.02239990234375 41.027099609375 41.03179931640625 41.0364990234375 41.041301727294921875 41.046001434326171875 41.051300048828125 41.055999755859375 41.108501434326171875 41.17449951171875 41.204601287841796875 41.225799560546875 41.247699737548828125 41.268901824951171875 41.271800994873046875 41.274200439453125 41.27719879150390625 41.279499053955078125 41.282501220703125 41.284801483154296875 41.287799835205078125 41.295398712158203125 41.3031005859375 41.31079864501953125 41.318401336669921875 41.326099395751953125 41.33380126953125 41.341400146484375 41.348499298095703125 41.356201171875 41.363300323486328125 41.37509918212890625 41.38690185546875 41.398601531982421875 41.409900665283203125 41.421600341796875 41.433399200439453125 41.445201873779296875 41.457000732421875 41.46820068359375 41.479999542236328125 41.489498138427734375 41.49829864501953125 41.507801055908203125 41.5166015625 41.5260009765625 41.534900665283203125
42.193599700927734375 42.1894989013671875 42.186000823974609375 42.18180084228515625 42.1688995361328125 42.151798248291015625 42.13410186767578125 42.11640167236328125 42.09870147705078125 42.08100128173828125 42.06330108642578125 42.04560089111328125 42.02790069580078125 42.010799407958984375 41.993099212646484375 41.975399017333984375 41.957698822021484375 41.939998626708984375 41.922298431396484375 41.90470123291015625 41.88700103759765625 41.86930084228515625 41.852199554443359375 41.834499359130859375 41.816799163818359375 41.799098968505859375 41.781398773193359375 41.763698577880859375 41.74720001220703125 41.730701446533203125 41.714199066162109375 41.62509918212890625 41.316699981689453125 41.007598876953125 40.699199676513671875 40.39080047607421875 40.08229827880859375 39.7761993408203125 39.474300384521484375 39.17169952392578125 39.014301300048828125 39.014301300048828125 39.014301300048828125 39.01490020751953125 39.01490020751953125 39.015399932861328125 39.015399932861328125 39.01599884033203125 39.01599884033203125 39.0166015625 39.076801300048828125 39.34040069580078125 39.604000091552734375 39.8675994873046875 40.13069915771484375 40.421398162841796875 40.71450042724609375 40.927398681640625 40.93450164794921875 40.94100189208984375 40.947498321533203125 40.954601287841796875 40.96099853515625 40.966899871826171875 40.97280120849609375 40.97869873046875 40.985198974609375 40.991100311279296875 40.99700164794921875 41.002899169921875 41.00820159912109375 41.01290130615234375 41.0177001953125 41.02239990234375 41.027099609375 41.032398223876953125 41.03710174560546875 41.04180145263671875 41.046600341796875 41.051300048828125 41.101398468017578125 41.163898468017578125 41.185699462890625 41.207000732421875 41.228199005126953125 41.25 41.27130126953125 41.274200439453125 41.276599884033203125 41.279499053955078125 41.28189849853515625 41.284801483154296875 41.287799835205078125 41.2947998046875 41.302501678466796875 41.310199737548828125 41.317798614501953125 41.32550048828125 41.33319854736328125 41.340801239013671875 41.347900390625 41.35559844970703125 41.362701416015625 41.374500274658203125 41.38629913330078125 41.398101806640625 41.4093017578125 41.421100616455078125 41.43289947509765625 41.444599151611328125 41.456401824951171875 41.46820068359375 41.479400634765625 41.48889923095703125 41.497699737548828125 41.507198333740234375 41.51599884033203125 41.52539825439453125 41.5343017578125
42.200099945068359375 42.1959991455078125 42.191898345947265625 42.18830108642578125 42.179500579833984375 42.161800384521484375 42.144100189208984375 42.126399993896484375 42.1092987060546875 42.0915985107421875 42.0738983154296875 42.0561981201171875 42.038501739501953125 42.020801544189453125 42.003101348876953125 41.985500335693359375 41.96829986572265625 41.9506988525390625 41.9329986572265625 41.9152984619140625 41.8975982666015625 41.879901885986328125 41.862201690673828125 41.844501495361328125 41.826801300048828125 41.80970001220703125 41.79199981689453125 41.77429962158203125 41.75659942626953125 41.73889923095703125 41.720699310302734375 41.60739898681640625 41.3114013671875 41.0093994140625 40.70690155029296875 40.404300689697265625 40.1024017333984375 39.799800872802734375 39.4972991943359375 39.194698333740234375 39.01490020751953125 39.01490020751953125 39.015399932861328125 39.015399932861328125 39.015399932861328125 39.01599884033203125 39.01599884033203125 39.0166015625 39.0166015625 39.017200469970703125 39.060298919677734375 39.3238983154296875 39.58750152587890625 39.850498199462890625 40.114200592041015625 40.37779998779296875 40.641399383544921875 40.926799774169921875 40.93389892578125 40.940399169921875 40.946300506591796875 40.95220184326171875 40.958099365234375 40.964599609375 40.970500946044921875 40.976398468017578125 40.9822998046875 40.988800048828125 40.994098663330078125 40.998798370361328125 41.00350189208984375 41.00820159912109375 41.01290130615234375 41.018299102783203125 41.022998809814453125 41.027698516845703125 41.032398223876953125 41.03710174560546875 41.04180145263671875 41.047199249267578125 41.09429931640625 41.145099639892578125 41.166301727294921875 41.188098907470703125 41.209300994873046875 41.23059844970703125 41.252399444580078125 41.273601531982421875 41.276599884033203125 41.278900146484375 41.28189849853515625 41.284198760986328125 41.287200927734375 41.2947998046875 41.302501678466796875 41.310199737548828125 41.317798614501953125 41.32550048828125 41.332599639892578125 41.340301513671875 41.347301483154296875 41.354999542236328125 41.36209869384765625 41.3739013671875 41.385700225830078125 41.39749908447265625 41.40869903564453125 41.420501708984375 41.432300567626953125 41.44409942626953125 41.455898284912109375 41.467601776123046875 41.478900909423828125 41.488300323486328125 41.497100830078125 41.50659942626953125 41.515399932861328125 41.524898529052734375 41.53549957275390625
42.206600189208984375 42.2024993896484375 42.198398590087890625 42.19480133056640625 42.19010162353515625 42.17240142822265625 42.15470123291015625 42.13700103759765625 42.11930084228515625 42.10160064697265625 42.08390045166015625 42.066799163818359375 42.049098968505859375 42.03150177001953125 42.01380157470703125 41.99610137939453125 41.97840118408203125 41.96070098876953125 41.94300079345703125 41.925899505615234375 41.908199310302734375 41.890499114990234375 41.872798919677734375 41.855098724365234375 41.837398529052734375 41.819698333740234375 41.801998138427734375 41.784900665283203125 41.76779937744140625 41.746601104736328125 41.724201202392578125 41.60449981689453125 41.324298858642578125 41.032398223876953125 40.730499267578125 40.427898406982421875 40.125400543212890625 39.8227996826171875 39.520900726318359375 39.21829986572265625 39.015399932861328125 39.015399932861328125 39.01599884033203125 39.01599884033203125 39.0166015625 39.0166015625 39.0166015625 39.017200469970703125 39.017200469970703125 39.01779937744140625 39.043701171875 39.30680084228515625 39.570400238037109375 39.8339996337890625 40.097599029541015625 40.360698699951171875 40.624298095703125 40.844898223876953125 40.931598663330078125 40.9375 40.94390106201171875 40.949798583984375 40.955699920654296875 40.96160125732421875 40.96810150146484375 40.9739990234375 40.979900360107421875 40.984600067138671875 40.989398956298828125 40.994098663330078125 40.999401092529296875 41.004100799560546875 41.008800506591796875 41.013500213623046875 41.018299102783203125 41.022998809814453125 41.028301239013671875 41.033000946044921875 41.037700653076171875 41.042400360107421875 41.086700439453125 41.126201629638671875 41.14739990234375 41.168598175048828125 41.19049835205078125 41.211700439453125 41.232898712158203125 41.25469970703125 41.2760009765625 41.278900146484375 41.281299591064453125 41.284198760986328125 41.28659820556640625 41.294300079345703125 41.301898956298828125 41.309600830078125 41.31729888916015625 41.324901580810546875 41.332000732421875 41.33969879150390625 41.346698760986328125 41.354400634765625 41.361499786376953125 41.37329864501953125 41.385101318359375 41.396900177001953125 41.408100128173828125 41.41989898681640625 41.43170166015625 41.443500518798828125 41.45529937744140625 41.467098236083984375 41.478298187255859375 41.487701416015625 41.49649810791015625 41.506000518798828125 41.514801025390625 41.5260009765625 41.537200927734375
42.213100433349609375 42.2089996337890625 42.204799652099609375 42.2006988525390625 42.197200775146484375 42.1829986572265625 42.1652984619140625 42.1475982666015625 42.129901885986328125 42.112300872802734375 42.094600677490234375 42.076900482177734375 42.059200286865234375 42.0420989990234375 42.0243988037109375 42.0066986083984375 41.9889984130859375 41.9712982177734375 41.953601837158203125 41.935901641845703125 41.918201446533203125 41.900501251220703125 41.88339996337890625 41.86569976806640625 41.848598480224609375 41.831501007080078125 41.813800811767578125 41.794399261474609375 41.771999359130859375 41.75009918212890625 41.72769927978515625 41.60150146484375 41.321399688720703125 41.041301727294921875 40.75350189208984375 40.450901031494140625 40.148998260498046875 39.846401214599609375 39.5438995361328125 39.241901397705078125 39.01599884033203125 39.01599884033203125 39.0166015625 39.0166015625 39.017200469970703125 39.017200469970703125 39.01779937744140625 39.01779937744140625 39.01779937744140625 39.018398284912109375 39.026599884033203125 39.2902984619140625 39.55390167236328125 39.816898345947265625 40.080501556396484375 40.3282012939453125 40.52519989013671875 40.722198486328125 40.919200897216796875 40.935100555419921875 40.94100189208984375 40.947498321533203125 40.953399658203125 40.959300994873046875 40.965198516845703125 40.970500946044921875 40.975200653076171875 40.980499267578125 40.985198974609375 40.989898681640625 40.994701385498046875 40.999401092529296875 41.004100799560546875 41.0093994140625 41.01409912109375 41.018798828125 41.023601531982421875 41.028301239013671875 41.033000946044921875 41.038299560546875 41.079601287841796875 41.106700897216796875 41.12850189208984375 41.149799346923828125 41.171001434326171875 41.192798614501953125 41.214099884033203125 41.23529815673828125 41.257099151611328125 41.278301239013671875 41.281299591064453125 41.283599853515625 41.28659820556640625 41.294300079345703125 41.301898956298828125 41.309600830078125 41.316699981689453125 41.324298858642578125 41.331401824951171875 41.339099884033203125 41.34619903564453125 41.353801727294921875 41.36090087890625 41.372699737548828125 41.38449859619140625 41.39630126953125 41.407501220703125 41.419300079345703125 41.43109893798828125 41.442901611328125 41.454700469970703125 41.46649932861328125 41.478298187255859375 41.48709869384765625 41.495998382568359375 41.505401611328125 41.5166015625 41.52719879150390625 41.53839874267578125
42.219600677490234375 42.2154998779296875 42.211299896240234375 42.2071990966796875 42.203701019287109375 42.19300079345703125 42.1753997802734375 42.1576995849609375 42.140598297119140625 42.122898101806640625 42.10520172119140625 42.08750152587890625 42.06980133056640625 42.05210113525390625 42.03440093994140625 42.01670074462890625 41.999599456787109375 41.981899261474609375 41.964199066162109375 41.946498870849609375 41.928798675537109375 41.911701202392578125 41.89459991455078125 41.877498626708984375 41.860401153564453125 41.842098236083984375 41.820301055908203125 41.797901153564453125 41.775501251220703125 41.75370025634765625 41.73130035400390625 41.598598480224609375 41.318401336669921875 41.038299560546875 40.75820159912109375 40.474498748779296875 40.172000885009765625 39.869998931884765625 39.567501068115234375 39.26490020751953125 39.0166015625 39.0166015625 39.017200469970703125 39.017200469970703125 39.01779937744140625 39.01779937744140625 39.018398284912109375 39.018398284912109375 39.019001007080078125 39.019001007080078125 39.019001007080078125 39.27320098876953125 39.536800384521484375 39.8003997802734375 40.007999420166015625 40.2050018310546875 40.40200042724609375 40.599498748779296875 40.79650115966796875 40.93270111083984375 40.9385986328125 40.944499969482421875 40.951000213623046875 40.956298828125 40.96099853515625 40.966400146484375 40.971099853515625 40.975799560546875 40.980499267578125 40.985198974609375 40.989898681640625 40.99530029296875 41 41.00469970703125 41.0093994140625 41.01409912109375 41.018798828125 41.024200439453125 41.028900146484375 41.033599853515625 41.06600189208984375 41.087799072265625 41.109100341796875 41.130901336669921875 41.152099609375 41.17340087890625 41.195201873779296875 41.216400146484375 41.237598419189453125 41.25949859619140625 41.28070068359375 41.283599853515625 41.285999298095703125 41.293701171875 41.301300048828125 41.30899810791015625 41.31610107421875 41.323699951171875 41.330799102783203125 41.3385009765625 41.345600128173828125 41.353199005126953125 41.36029815673828125 41.372100830078125 41.383899688720703125 41.39569854736328125 41.40689849853515625 41.418701171875 41.430500030517578125 41.44229888916015625 41.4541015625 41.465900421142578125 41.47769927978515625 41.486499786376953125 41.495998382568359375 41.50659942626953125 41.51779937744140625 41.528400421142578125 41.539600372314453125
42.226100921630859375 42.22190093994140625 42.217800140380859375 42.2136993408203125 42.209598541259765625 42.203701019287109375 42.186000823974609375 42.168300628662109375 42.150600433349609375 42.132900238037109375 42.115200042724609375 42.0980987548828125 42.0803985595703125 42.0626983642578125 42.0449981689453125 42.027301788330078125 42.009601593017578125 41.99250030517578125 41.97480010986328125 41.957698822021484375 41.940601348876953125 41.92350006103515625 41.906398773193359375 41.889301300048828125 41.868099212646484375 41.845699310302734375 41.8238983154296875 41.80139923095703125 41.779598236083984375 41.757198333740234375 41.734798431396484375 41.59619903564453125 41.31610107421875 41.035400390625 40.755199432373046875 40.475101470947265625 40.19499969482421875 39.893001556396484375 39.590999603271484375 39.288501739501953125 39.017200469970703125 39.017200469970703125 39.01779937744140625 39.01779937744140625 39.018398284912109375 39.018398284912109375 39.019001007080078125 39.019001007080078125 39.01959991455078125 39.01959991455078125 39.020198822021484375 39.2566986083984375 39.49140167236328125 39.6884002685546875 39.8852996826171875 40.08229827880859375 40.279300689697265625 40.476299285888671875 40.673198699951171875 40.87020111083984375 40.936298370361328125 40.94219970703125 40.947498321533203125 40.95220184326171875 40.95690155029296875 40.96160125732421875 40.966400146484375 40.971099853515625 40.976398468017578125 40.981098175048828125 40.98580169677734375 40.99050140380859375 40.99530029296875 41 41.005298614501953125 41.009998321533203125 41.01470184326171875 41.01940155029296875 41.024200439453125 41.028900146484375 41.047199249267578125 41.068401336669921875 41.090198516845703125 41.111400604248046875 41.13330078125 41.154499053955078125 41.175701141357421875 41.197498321533203125 41.218799591064453125 41.240001678466796875 41.261798858642578125 41.283100128173828125 41.285999298095703125 41.293701171875 41.300701141357421875 41.308399200439453125 41.31549835205078125 41.323200225830078125 41.3302001953125 41.33789825439453125 41.345001220703125 41.35260009765625 41.359699249267578125 41.37149810791015625 41.38330078125 41.395099639892578125 41.406299591064453125 41.41809844970703125 41.429901123046875 41.441699981689453125 41.45349884033203125 41.465301513671875 41.477100372314453125 41.48590087890625 41.497100830078125 41.507801055908203125 41.519001007080078125 41.529598236083984375 41.540798187255859375
42.231998443603515625 42.22840118408203125 42.224300384521484375 42.2201995849609375 42.215999603271484375 42.2118988037109375 42.19660186767578125 42.17890167236328125 42.16120147705078125 42.14350128173828125 42.12580108642578125 42.10810089111328125 42.09040069580078125 42.073299407958984375 42.055599212646484375 42.038501739501953125 42.02140045166015625 42.00370025634765625 41.986598968505859375 41.969501495361328125 41.95240020751953125 41.935298919677734375 41.91590118408203125 41.894001007080078125 41.871601104736328125 41.849201202392578125 41.82740020751953125 41.80500030517578125 41.783199310302734375 41.760799407958984375 41.738300323486328125 41.59329986572265625 41.313098907470703125 41.033000946044921875 40.752899169921875 40.47209930419921875 40.1920013427734375 39.911899566650390625 39.6139984130859375 39.312099456787109375 39.01779937744140625 39.018398284912109375 39.018398284912109375 39.018398284912109375 39.019001007080078125 39.019001007080078125 39.01959991455078125 39.01959991455078125 39.020198822021484375 39.020198822021484375 39.02069854736328125 39.1811981201171875 39.37870025634765625 39.57630157470703125 39.773899078369140625 39.971401214599609375 40.16899871826171875 40.36660003662109375 40.5635986328125 40.76110076904296875 40.933300018310546875 40.9385986328125 40.943401336669921875 40.948101043701171875 40.953399658203125 40.958099365234375 40.962799072265625 40.967498779296875 40.97280120849609375 40.97760009765625 40.9822998046875 40.987598419189453125 40.992298126220703125 40.99700164794921875 41.00170135498046875 41.006999969482421875 41.011798858642578125 41.016498565673828125 41.021800994873046875 41.027099609375 41.033599853515625 41.053600311279296875 41.074901580810546875 41.095500946044921875 41.11669921875 41.13800048828125 41.159198760986328125 41.179798126220703125 41.201099395751953125 41.222301483154296875 41.243499755859375 41.26419830322265625 41.285400390625 41.29309844970703125 41.300201416015625 41.30780029296875 41.314899444580078125 41.322601318359375 41.329601287841796875 41.337299346923828125 41.34439849853515625 41.352100372314453125 41.359100341796875 41.370899200439453125 41.382701873779296875 41.394500732421875 41.406299591064453125 41.417499542236328125 41.42929840087890625 41.44110107421875 41.452899932861328125 41.46469879150390625 41.47650146484375 41.48709869384765625 41.49829864501953125 41.508899688720703125 41.520099639892578125 41.531299591064453125 41.54199981689453125
42.238498687744140625 42.23490142822265625 42.230800628662109375 42.2266998291015625 42.222499847412109375 42.2183990478515625 42.206600189208984375 42.188899993896484375 42.1717987060546875 42.1540985107421875 42.1363983154296875 42.1186981201171875 42.10160064697265625 42.084499359130859375 42.067401885986328125 42.05030059814453125 42.033199310302734375 42.015499114990234375 41.998401641845703125 41.98130035400390625 41.96360015869140625 41.941799163818359375 41.919399261474609375 41.8975982666015625 41.8751983642578125 41.8527984619140625 41.830898284912109375 41.808498382568359375 41.786701202392578125 41.764301300048828125 41.741901397705078125 41.590301513671875 41.310199737548828125 41.029998779296875 40.74990081787109375 40.469799041748046875 40.189601898193359375 39.908901214599609375 39.6287994384765625 39.3350982666015625 39.032501220703125 39.019001007080078125 39.019001007080078125 39.01959991455078125 39.01959991455078125 39.01959991455078125 39.020198822021484375 39.020198822021484375 39.02069854736328125 39.02069854736328125 39.02130126953125 39.139301300048828125 39.3368988037109375 39.53440093994140625 39.731998443603515625 39.929599761962890625 40.127101898193359375 40.32469940185546875 40.52230072021484375 40.702701568603515625 40.850200653076171875 40.936901092529296875 40.941600799560546875 40.946300506591796875 40.95159912109375 40.956298828125 40.96099853515625 40.965801239013671875 40.971099853515625 40.975799560546875 40.980499267578125 40.98580169677734375 40.99050140380859375 40.99530029296875 41 41.005298614501953125 41.010601043701171875 41.016498565673828125 41.021198272705078125 41.027099609375 41.033599853515625 41.041301727294921875 41.0625 41.083099365234375 41.104400634765625 41.125598907470703125 41.146800994873046875 41.16809844970703125 41.188701629638671875 41.20989990234375 41.231201171875 41.252399444580078125 41.287200927734375 41.2947998046875 41.301898956298828125 41.309600830078125 41.316699981689453125 41.324298858642578125 41.331401824951171875 41.339099884033203125 41.34619903564453125 41.353801727294921875 41.359699249267578125 41.37149810791015625 41.38330078125 41.394500732421875 41.406299591064453125 41.41809844970703125 41.429901123046875 41.441699981689453125 41.45349884033203125 41.465301513671875 41.477100372314453125 41.488300323486328125 41.499500274658203125 41.510101318359375 41.52130126953125 41.53189849853515625 41.54309844970703125
42.243801116943359375 42.240200042724609375 42.236698150634765625 42.2332000732421875 42.229000091552734375 42.2248992919921875 42.21720123291015625 42.19950103759765625 42.182399749755859375 42.1652984619140625 42.1475982666015625 42.13050079345703125 42.113399505615234375 42.0962982177734375 42.07920074462890625 42.062099456787109375 42.044399261474609375 42.027301788330078125 42.01020050048828125 41.98960113525390625 41.96720123291015625 41.945301055908203125 41.922901153564453125 41.90110015869140625 41.87870025634765625 41.856899261474609375 41.834499359130859375 41.812099456787109375 41.79019927978515625 41.76779937744140625 41.745998382568359375 41.587398529052734375 41.307201385498046875 41.027099609375 40.74700164794921875 40.466800689697265625 40.18669891357421875 39.9066009521484375 39.626399993896484375 39.345699310302734375 39.05609893798828125 39.01959991455078125 39.01959991455078125 39.020198822021484375 39.020198822021484375 39.02069854736328125 39.02069854736328125 39.02069854736328125 39.02130126953125 39.02130126953125 39.021900177001953125 39.09799957275390625 39.2949981689453125 39.4925994873046875 39.69010162353515625 39.887699127197265625 40.085300445556640625 40.28279876708984375 40.463298797607421875 40.610698699951171875 40.75820159912109375 40.906200408935546875 40.939800262451171875 40.944499969482421875 40.949798583984375 40.954601287841796875 40.959300994873046875 40.964000701904296875 40.96929931640625 40.9739990234375 40.97869873046875 40.98400115966796875 40.988800048828125 40.994098663330078125 41 41.005298614501953125 41.011199951171875 41.015899658203125 41.020000457763671875 41.027099609375 41.034198760986328125 41.040699005126953125 41.050098419189453125 41.071300506591796875 41.091999053955078125 41.113201141357421875 41.1343994140625 41.15570068359375 41.176300048828125 41.197498321533203125 41.218799591064453125 41.25360107421875 41.28900146484375 41.296600341796875 41.303699493408203125 41.3114013671875 41.318401336669921875 41.326099395751953125 41.33319854736328125 41.340801239013671875 41.347900390625 41.353801727294921875 41.36029815673828125 41.372100830078125 41.38330078125 41.395099639892578125 41.40689849853515625 41.418701171875 41.430500030517578125 41.44229888916015625 41.45349884033203125 41.465900421142578125 41.478298187255859375 41.489498138427734375 41.50009918212890625 41.51129913330078125 41.521900177001953125 41.533100128173828125 41.544300079345703125
42.248500823974609375 42.244899749755859375 42.2407989501953125 42.237300872802734375 42.233699798583984375 42.23020172119140625 42.2277984619140625 42.211299896240234375 42.1941986083984375 42.1764984130859375 42.15940093994140625 42.142299652099609375 42.1251983642578125 42.10810089111328125 42.090999603271484375 42.0738983154296875 42.0561981201171875 42.0373992919921875 42.015499114990234375 41.993099212646484375 41.9712982177734375 41.9488983154296875 41.9264984130859375 41.90470123291015625 41.882198333740234375 41.860401153564453125 41.838001251220703125 41.815601348876953125 41.79380035400390625 41.77140045166015625 41.749599456787109375 41.58499908447265625 41.304901123046875 41.024200439453125 40.743999481201171875 40.463901519775390625 40.1837005615234375 39.903598785400390625 39.623500823974609375 39.34329986572265625 39.063800811767578125 39.020198822021484375 39.020198822021484375 39.02069854736328125 39.02069854736328125 39.02130126953125 39.02130126953125 39.021900177001953125 39.021900177001953125 39.021900177001953125 39.02249908447265625 39.05609893798828125 39.25370025634765625 39.4506988525390625 39.64820098876953125 39.845798492431640625 40.043399810791015625 40.22389984130859375 40.37129974365234375 40.51869964599609375 40.66680145263671875 40.81420135498046875 40.937999725341796875 40.942798614501953125 40.948101043701171875 40.952800750732421875 40.957500457763671875 40.962200164794921875 40.967498779296875 40.972301483154296875 40.97760009765625 40.983501434326171875 40.988800048828125 40.994098663330078125 41 41.005298614501953125 41.009998321533203125 41.01409912109375 41.020599365234375 41.027099609375 41.034198760986328125 41.040699005126953125 41.047698974609375 41.05889892578125 41.0802001953125 41.100799560546875 41.12200164794921875 41.143299102783203125 41.164501190185546875 41.185199737548828125 41.21939849853515625 41.255298614501953125 41.290699005126953125 41.29779815673828125 41.305500030517578125 41.3125 41.320201873779296875 41.327301025390625 41.33499908447265625 41.341999053955078125 41.348499298095703125 41.354400634765625 41.36029815673828125 41.372100830078125 41.383899688720703125 41.39569854736328125 41.407501220703125 41.419300079345703125 41.43109893798828125 41.44229888916015625 41.454700469970703125 41.467098236083984375 41.479400634765625 41.490100860595703125 41.501300811767578125 41.512500762939453125 41.523101806640625 41.5343017578125 41.54489898681640625
42.25260162353515625 42.2490997314453125 42.2454986572265625 42.242000579833984375 42.2389984130859375 42.236698150634765625 42.233699798583984375 42.2230987548828125 42.20600128173828125 42.18830108642578125 42.171199798583984375 42.1540985107421875 42.13700103759765625 42.119899749755859375 42.1027984619140625 42.0850982666015625 42.06330108642578125 42.04090118408203125 42.019100189208984375 41.996700286865234375 41.97480010986328125 41.95240020751953125 41.93000030517578125 41.908199310302734375 41.885799407958984375 41.8639984130859375 41.8415985107421875 41.81909942626953125 41.797298431396484375 41.774898529052734375 41.753101348876953125 41.58209991455078125 41.301898956298828125 41.021800994873046875 40.741100311279296875 40.46089935302734375 40.1808013916015625 39.900699615478515625 39.62110137939453125 39.34220123291015625 39.063800811767578125 39.02069854736328125 39.02069854736328125 39.02130126953125 39.02130126953125 39.021900177001953125 39.021900177001953125 39.02249908447265625 39.02249908447265625 39.023101806640625 39.023101806640625 39.023101806640625 39.21179962158203125 39.40940093994140625 39.6063995361328125 39.80390167236328125 39.984401702880859375 40.131801605224609375 40.279300689697265625 40.42729949951171875 40.574798583984375 40.72280120849609375 40.87020111083984375 40.94100189208984375 40.946300506591796875 40.951000213623046875 40.955699920654296875 40.96099853515625 40.966899871826171875 40.972301483154296875 40.97760009765625 40.983501434326171875 40.988800048828125 40.994701385498046875 41 41.00469970703125 41.00820159912109375 41.013500213623046875 41.020599365234375 41.027698516845703125 41.034198760986328125 41.041301727294921875 41.047698974609375 41.054798126220703125 41.067798614501953125 41.08840179443359375 41.109699249267578125 41.130901336669921875 41.152099609375 41.185699462890625 41.221099853515625 41.257099151611328125 41.292499542236328125 41.29959869384765625 41.307201385498046875 41.314300537109375 41.32199859619140625 41.3291015625 41.336700439453125 41.342601776123046875 41.34909820556640625 41.354999542236328125 41.36090087890625 41.372699737548828125 41.38449859619140625 41.39630126953125 41.408100128173828125 41.419300079345703125 41.43109893798828125 41.443500518798828125 41.455898284912109375 41.46820068359375 41.48059844970703125 41.491199493408203125 41.502399444580078125 41.51309967041015625 41.52429962158203125 41.53549957275390625 41.546100616455078125
42.25730133056640625 42.253200531005859375 42.25080108642578125 42.247898101806640625 42.2454986572265625 42.2425994873046875 42.240200042724609375 42.23490142822265625 42.21720123291015625 42.200099945068359375 42.1829986572265625 42.16590118408203125 42.148799896240234375 42.1316986083984375 42.1110992431640625 42.089199066162109375 42.066799163818359375 42.044399261474609375 42.0225982666015625 42.0001983642578125 41.97840118408203125 41.95600128173828125 41.934101104736328125 41.911701202392578125 41.889301300048828125 41.86750030517578125 41.84510040283203125 41.823299407958984375 41.800899505615234375 41.778400421142578125 41.75659942626953125 41.5791015625 41.298999786376953125 41.018798828125 40.73870086669921875 40.458599090576171875 40.177898406982421875 39.899501800537109375 39.6204986572265625 39.34220123291015625 39.063800811767578125 39.02130126953125 39.02130126953125 39.021900177001953125 39.021900177001953125 39.02249908447265625 39.02249908447265625 39.023101806640625 39.023101806640625 39.023700714111328125 39.023700714111328125 39.02429962158203125 39.1699981689453125 39.36750030517578125 39.56510162353515625 39.744998931884765625 39.892398834228515625 40.039798736572265625 40.187900543212890625 40.335300445556640625 40.48329925537109375 40.63079833984375 40.77880096435546875 40.926300048828125 40.944499969482421875 40.949798583984375 40.955699920654296875 40.96099853515625 40.966899871826171875 40.972301483154296875 40.978099822998046875 40.983501434326171875 40.988800048828125 40.994701385498046875 40.998798370361328125 41.002899169921875 41.006999969482421875 41.01409912109375 41.020599365234375 41.027698516845703125 41.034198760986328125 41.041301727294921875 41.04830169677734375 41.054798126220703125 41.061901092529296875 41.07659912109375 41.097301483154296875 41.118499755859375 41.152099609375 41.1875 41.222900390625 41.258899688720703125 41.294300079345703125 41.301300048828125 41.30899810791015625 41.31610107421875 41.323699951171875 41.330799102783203125 41.337299346923828125 41.34320068359375 41.34909820556640625 41.35559844970703125 41.361499786376953125 41.37329864501953125 41.385101318359375 41.39630126953125 41.408100128173828125 41.41989898681640625 41.432300567626953125 41.444599151611328125 41.457000732421875 41.468799591064453125 41.481201171875 41.492401123046875 41.50299835205078125 41.51419830322265625 41.52539825439453125 41.536098480224609375 41.54669952392578125
42.26200103759765625 42.259700775146484375 42.2566986083984375 42.254398345947265625 42.2519989013671875 42.2490997314453125 42.246700286865234375 42.243801116943359375 42.229000091552734375 42.2118988037109375 42.19480133056640625 42.177700042724609375 42.15940093994140625 42.13700103759765625 42.11460113525390625 42.092800140380859375 42.070400238037109375 42.0485992431640625 42.02610015869140625 42.00370025634765625 41.981899261474609375 41.959499359130859375 41.9376983642578125 41.9152984619140625 41.8928985595703125 41.870998382568359375 41.848598480224609375 41.826801300048828125 41.804401397705078125 41.782001495361328125 41.76020050048828125 41.576198577880859375 41.296001434326171875 41.015899658203125 40.73580169677734375 40.45619964599609375 40.177898406982421875 39.898899078369140625 39.6204986572265625 39.34220123291015625 39.063800811767578125 39.021900177001953125 39.02249908447265625 39.02249908447265625 39.02249908447265625 39.023101806640625 39.023101806640625 39.023700714111328125 39.023700714111328125 39.02429962158203125 39.02429962158203125 39.024898529052734375 39.128101348876953125 39.3256988525390625 39.50550079345703125 39.6529998779296875 39.800998687744140625 39.948398590087890625 40.0959014892578125 40.243900299072265625 40.398998260498046875 40.561798095703125 40.725101470947265625 40.89260101318359375 40.944499969482421875 40.95040130615234375 40.955699920654296875 40.96160125732421875 40.966899871826171875 40.972301483154296875 40.978099822998046875 40.983501434326171875 40.989398956298828125 40.993499755859375 40.99700164794921875 41.000598907470703125 41.006999969482421875 41.01409912109375 41.021198272705078125 41.027698516845703125 41.034801483154296875 41.041301727294921875 41.04830169677734375 41.055400848388671875 41.061901092529296875 41.069000244140625 41.085498809814453125 41.117900848388671875 41.153900146484375 41.189300537109375 41.224700927734375 41.260601043701171875 41.296001434326171875 41.3031005859375 41.31079864501953125 41.317798614501953125 41.32550048828125 41.331401824951171875 41.337299346923828125 41.343799591064453125 41.349700927734375 41.35559844970703125 41.36209869384765625 41.3739013671875 41.385101318359375 41.396900177001953125 41.40869903564453125 41.421100616455078125 41.433399200439453125 41.44580078125 41.457599639892578125 41.470001220703125 41.48239898681640625 41.49359893798828125 41.504199981689453125 41.515399932861328125 41.5260009765625 41.53659820556640625 41.54669952392578125
42.26850128173828125 42.266201019287109375 42.2631988525390625 42.260898590087890625 42.257900238037109375 42.2555999755859375 42.253200531005859375 42.250301361083984375 42.2407989501953125 42.22370147705078125 42.206600189208984375 42.1847991943359375 42.162998199462890625 42.140598297119140625 42.118099212646484375 42.0962982177734375 42.0738983154296875 42.05210113525390625 42.02970123291015625 42.00730133056640625 41.985500335693359375 41.963001251220703125 41.94120025634765625 41.91880035400390625 41.89640045166015625 41.874599456787109375 41.852199554443359375 41.83029937744140625 41.80789947509765625 41.786098480224609375 41.763698577880859375 41.57379913330078125 41.29309844970703125 41.01290130615234375 40.734600067138671875 40.45619964599609375 40.177898406982421875 39.898899078369140625 39.6204986572265625 39.34220123291015625 39.063800811767578125 39.02249908447265625 39.023101806640625 39.023101806640625 39.023700714111328125 39.023700714111328125 39.023700714111328125 39.02429962158203125 39.02429962158203125 39.024898529052734375 39.024898529052734375 39.025501251220703125 39.086200714111328125 39.266101837158203125 39.413501739501953125 39.5615997314453125 39.720798492431640625 39.88359832763671875 40.0457000732421875 40.208499908447265625 40.370700836181640625 40.53820037841796875 40.705699920654296875 40.873199462890625 40.944499969482421875 40.95040130615234375 40.955699920654296875 40.96160125732421875 40.966899871826171875 40.97280120849609375 40.978099822998046875 40.98400115966796875 40.987598419189453125 40.99169921875 40.99530029296875 41.000598907470703125 41.007598876953125 41.01409912109375 41.021198272705078125 41.027698516845703125 41.034801483154296875 41.04180145263671875 41.04830169677734375 41.055400848388671875 41.0625 41.069000244140625 41.081401824951171875 41.119701385498046875 41.15570068359375 41.19110107421875 41.226398468017578125 41.261798858642578125 41.29779815673828125 41.304901123046875 41.3125 41.319599151611328125 41.326099395751953125 41.332000732421875 41.33789825439453125 41.34439849853515625 41.350299835205078125 41.356201171875 41.36209869384765625 41.3739013671875 41.385700225830078125 41.39749908447265625 41.409900665283203125 41.422199249267578125 41.43399810791015625 41.446399688720703125 41.45880126953125 41.47119903564453125 41.483600616455078125 41.49420166015625 41.505401611328125 41.51599884033203125 41.526599884033203125 41.537200927734375 41.547298431396484375
42.27500152587890625 42.272098541259765625 42.2696990966796875 42.2667999267578125 42.264400482177734375 42.26200103759765625 42.25910186767578125 42.2566986083984375 42.25260162353515625 42.232601165771484375 42.21070098876953125 42.18830108642578125 42.166500091552734375 42.144100189208984375 42.121700286865234375 42.0998992919921875 42.0774993896484375 42.055599212646484375 42.033199310302734375 42.0113983154296875 41.9889984130859375 41.9665985107421875 41.94480133056640625 41.922298431396484375 41.900501251220703125 41.878101348876953125 41.855701446533203125 41.83390045166015625 41.81150054931640625 41.789699554443359375 41.767200469970703125 41.57089996337890625 41.291301727294921875 41.01290130615234375 40.734600067138671875 40.45619964599609375 40.17729949951171875 39.898899078369140625 39.6204986572265625 39.34220123291015625 39.063800811767578125 39.023101806640625 39.023700714111328125 39.023700714111328125 39.02429962158203125 39.02429962158203125 39.024898529052734375 39.024898529052734375 39.024898529052734375 39.025501251220703125 39.025501251220703125 39.02610015869140625 39.042598724365234375 39.20529937744140625 39.36750030517578125 39.530300140380859375 39.692501068115234375 39.8553009033203125 40.018001556396484375 40.183200836181640625 40.3506011962890625 40.51869964599609375 40.686199188232421875 40.85369873046875 40.945098876953125 40.95040130615234375 40.956298828125 40.96160125732421875 40.966899871826171875 40.97280120849609375 40.978099822998046875 40.9822998046875 40.98580169677734375 40.989398956298828125 40.994098663330078125 41.000598907470703125 41.007598876953125 41.01409912109375 41.021198272705078125 41.028301239013671875 41.034801483154296875 41.04180145263671875 41.048900604248046875 41.055400848388671875 41.061298370361328125 41.069000244140625 41.0802001953125 41.1156005859375 41.155101776123046875 41.192798614501953125 41.228199005126953125 41.263599395751953125 41.29959869384765625 41.306598663330078125 41.314300537109375 41.320201873779296875 41.326099395751953125 41.332599639892578125 41.3385009765625 41.34439849853515625 41.35089874267578125 41.356800079345703125 41.362701416015625 41.374500274658203125 41.38629913330078125 41.398601531982421875 41.410999298095703125 41.42279815673828125 41.435199737548828125 41.447601318359375 41.45999908447265625 41.472400665283203125 41.48419952392578125 41.49539947509765625 41.50659942626953125 41.5166015625 41.52719879150390625 41.537200927734375 41.547901153564453125
42.2808990478515625 42.278598785400390625 42.2761993408203125 42.2733001708984375 42.270900726318359375 42.26850128173828125 42.266201019287109375 42.26380157470703125 42.260898590087890625 42.243801116943359375 42.221401214599609375 42.1988983154296875 42.1764984130859375 42.1540985107421875 42.1316986083984375 42.1092987060546875 42.0868988037109375 42.0644989013671875 42.0420989990234375 42.0196990966796875 41.99720001220703125 41.97480010986328125 41.95240020751953125 41.93000030517578125 41.90760040283203125 41.88520050048828125 41.86280059814453125 41.84040069580078125 41.817401885986328125 41.794399261474609375 41.77140045166015625 41.569698333740234375 41.291301727294921875 41.01290130615234375 40.734600067138671875 40.455600738525390625 40.17729949951171875 39.898899078369140625 39.6204986572265625 39.34220123291015625 39.063800811767578125 39.02429962158203125 39.02429962158203125 39.02429962158203125 39.024898529052734375 39.024898529052734375 39.025501251220703125 39.025501251220703125 39.02610015869140625 39.02610015869140625 39.02610015869140625 39.026599884033203125 39.026599884033203125 39.176998138427734375 39.339801788330078125 39.5019989013671875 39.664798736572265625 39.828701019287109375 39.9962005615234375 40.163700103759765625 40.33119964599609375 40.498699188232421875 40.66619873046875 40.833698272705078125 40.945098876953125 40.95040130615234375 40.956298828125 40.96160125732421875 40.967498779296875 40.97280120849609375 40.976398468017578125 40.980499267578125 40.98400115966796875 40.987598419189453125 40.994098663330078125 41.0010986328125 41.007598876953125 41.01470184326171875 41.021198272705078125 41.028301239013671875 41.035400390625 41.04180145263671875 41.04830169677734375 41.05300140380859375 41.060100555419921875 41.07070159912109375 41.08190155029296875 41.11080169677734375 41.15039825439453125 41.189899444580078125 41.229400634765625 41.265399932861328125 41.301300048828125 41.308399200439453125 41.314899444580078125 41.32080078125 41.32669830322265625 41.332599639892578125 41.339099884033203125 41.345001220703125 41.35089874267578125 41.35739898681640625 41.363300323486328125 41.37509918212890625 41.387401580810546875 41.399200439453125 41.41159820556640625 41.423999786376953125 41.4364013671875 41.44879913330078125 41.460601806640625 41.47299957275390625 41.48529815673828125 41.49649810791015625 41.50659942626953125 41.517200469970703125 41.52719879150390625 41.537799835205078125 41.54840087890625
42.288600921630859375 42.2855987548828125 42.283298492431640625 42.2808990478515625 42.278598785400390625 42.275600433349609375 42.2733001708984375 42.270900726318359375 42.267398834228515625 42.25730133056640625 42.23490142822265625 42.21250152587890625 42.19010162353515625 42.16770172119140625 42.1446990966796875 42.121700286865234375 42.09870147705078125 42.0756988525390625 42.05210113525390625 42.0290985107421875 42.006099700927734375 41.98310089111328125 41.9600982666015625 41.93650054931640625 41.913501739501953125 41.890499114990234375 41.86750030517578125 41.843898773193359375 41.82089996337890625 41.797901153564453125 41.774898529052734375 41.56729888916015625 41.29010009765625 41.01290130615234375 40.73400115966796875 40.455600738525390625 40.17729949951171875 39.898899078369140625 39.6204986572265625 39.34220123291015625 39.063201904296875 39.024898529052734375 39.024898529052734375 39.025501251220703125 39.025501251220703125 39.025501251220703125 39.02610015869140625 39.02610015869140625 39.026599884033203125 39.026599884033203125 39.02719879150390625 39.02719879150390625 39.02719879150390625 39.148700714111328125 39.31150054931640625 39.47370147705078125 39.641201019287109375 39.8087005615234375 39.9766998291015625 40.144199371337890625 40.31169891357421875 40.479198455810546875 40.646701812744140625 40.81420135498046875 40.945098876953125 40.951000213623046875 40.956298828125 40.962200164794921875 40.966899871826171875 40.971099853515625 40.97460174560546875 40.978099822998046875 40.9822998046875 40.987598419189453125 40.994098663330078125 41.0010986328125 41.007598876953125 41.01470184326171875 41.021800994873046875 41.028301239013671875 41.035400390625 41.040699005126953125 41.045398712158203125 41.050701141357421875 41.061901092529296875 41.073101043701171875 41.084300994873046875 41.105499267578125 41.145099639892578125 41.184600830078125 41.22409820556640625 41.263599395751953125 41.3031005859375 41.30899810791015625 41.314899444580078125 41.321399688720703125 41.327301025390625 41.33319854736328125 41.33969879150390625 41.345600128173828125 41.35150146484375 41.35739898681640625 41.363800048828125 41.376201629638671875 41.38800048828125 41.40039825439453125 41.412799835205078125 41.425201416015625 41.43759918212890625 41.44940185546875 41.461700439453125 41.47409820556640625 41.486499786376953125 41.49649810791015625 41.507198333740234375 41.517200469970703125 41.527801513671875 41.53839874267578125 41.54840087890625
42.2957000732421875 42.293300628662109375 42.29090118408203125 42.287998199462890625 42.2855987548828125 42.283298492431640625 42.2808990478515625 42.2779998779296875 42.2743988037109375 42.26850128173828125 42.244899749755859375 42.221401214599609375 42.1977996826171875 42.174198150634765625 42.1511993408203125 42.12760162353515625 42.104000091552734375 42.0803985595703125 42.057399749755859375 42.0337982177734375 42.01020050048828125 41.986598968505859375 41.96360015869140625 41.939998626708984375 41.91699981689453125 41.894001007080078125 41.870998382568359375 41.847400665283203125 41.82440185546875 41.80139923095703125 41.778400421142578125 41.56439971923828125 41.287200927734375 41.010601043701171875 40.7333984375 40.455600738525390625 40.17729949951171875 39.898899078369140625 39.6204986572265625 39.3415985107421875 39.063201904296875 39.025501251220703125 39.025501251220703125 39.02610015869140625 39.02610015869140625 39.02610015869140625 39.026599884033203125 39.026599884033203125 39.02719879150390625 39.02719879150390625 39.027801513671875 39.027801513671875 39.027801513671875 39.120998382568359375 39.286701202392578125 39.45420074462890625 39.621700286865234375 39.7891998291015625 39.956699371337890625 40.12419891357421875 40.291698455810546875 40.459201812744140625 40.62670135498046875 40.794101715087890625 40.945098876953125 40.951000213623046875 40.956298828125 40.96160125732421875 40.965198516845703125 40.96929931640625 40.97280120849609375 40.976398468017578125 40.980499267578125 40.987598419189453125 40.994701385498046875 41.0010986328125 41.00820159912109375 41.01470184326171875 41.021800994873046875 41.027698516845703125 41.032398223876953125 41.037700653076171875 41.042400360107421875 41.05300140380859375 41.063701629638671875 41.074901580810546875 41.086101531982421875 41.100200653076171875 41.13970184326171875 41.17929840087890625 41.218799591064453125 41.25830078125 41.304901123046875 41.31079864501953125 41.31729888916015625 41.323200225830078125 41.3291015625 41.335498809814453125 41.341400146484375 41.347301483154296875 41.353199005126953125 41.359699249267578125 41.3656005859375 41.37799835205078125 41.390399932861328125 41.402801513671875 41.414600372314453125 41.426998138427734375 41.439300537109375 41.45169830322265625 41.464099884033203125 41.47589874267578125 41.48590087890625 41.49649810791015625 41.50659942626953125 41.517200469970703125 41.527801513671875 41.537799835205078125 41.54840087890625
42.302700042724609375 42.3003997802734375 42.298000335693359375 42.2957000732421875 42.293300628662109375 42.290401458740234375 42.287998199462890625 42.2845001220703125 42.280300140380859375 42.2761993408203125 42.255001068115234375 42.2313995361328125 42.20780181884765625 42.1847991943359375 42.16120147705078125 42.137599945068359375 42.1139984130859375 42.09040069580078125 42.067401885986328125 42.04380035400390625 42.020198822021484375 41.996700286865234375 41.97370147705078125 41.950099945068359375 41.9264984130859375 41.90290069580078125 41.879901885986328125 41.85630035400390625 41.832698822021484375 41.809101104736328125 41.784900665283203125 41.57089996337890625 41.285400390625 41.007598876953125 40.730499267578125 40.45330047607421875 40.1761016845703125 39.898899078369140625 39.6204986572265625 39.3415985107421875 39.063201904296875 39.02610015869140625 39.02610015869140625 39.026599884033203125 39.026599884033203125 39.02719879150390625 39.02719879150390625 39.02719879150390625 39.027801513671875 39.027801513671875 39.028400421142578125 39.028400421142578125 39.028400421142578125 39.09510040283203125 39.264301300048828125 39.4329986572265625 39.602199554443359375 39.7696990966796875 39.937198638916015625 40.10469818115234375 40.2722015380859375 40.439701080322265625 40.60720062255859375 40.774700164794921875 40.94219970703125 40.951000213623046875 40.955699920654296875 40.95989990234375 40.96340179443359375 40.966899871826171875 40.971099853515625 40.97460174560546875 40.981098175048828125 40.987598419189453125 40.994701385498046875 41.0010986328125 41.00820159912109375 41.01470184326171875 41.01940155029296875 41.024700164794921875 41.029499053955078125 41.034801483154296875 41.043598175048828125 41.054798126220703125 41.06600189208984375 41.07720184326171875 41.087799072265625 41.0989990234375 41.1343994140625 41.173900604248046875 41.2135009765625 41.25299835205078125 41.306598663330078125 41.313098907470703125 41.319000244140625 41.324901580810546875 41.331401824951171875 41.337299346923828125 41.34320068359375 41.349700927734375 41.35559844970703125 41.361499786376953125 41.368000030517578125 41.37979888916015625 41.392200469970703125 41.404499053955078125 41.416900634765625 41.42929840087890625 41.44110107421875 41.45349884033203125 41.465900421142578125 41.47589874267578125 41.48590087890625 41.495998382568359375 41.50659942626953125 41.517200469970703125 41.52719879150390625 41.537799835205078125 41.547901153564453125
42.310398101806640625 42.3079986572265625 42.3050994873046875 42.302700042724609375 42.3003997802734375 42.298000335693359375 42.295101165771484375 42.29090118408203125 42.286800384521484375 42.282100677490234375 42.2649993896484375 42.24140167236328125 42.217800140380859375 42.19480133056640625 42.171199798583984375 42.1475982666015625 42.12400054931640625 42.101001739501953125 42.0774993896484375 42.05390167236328125 42.030300140380859375 42.0066986083984375 41.983699798583984375 41.9600982666015625 41.93650054931640625 41.912899017333984375 41.88990020751953125 41.866298675537109375 41.842098236083984375 41.81800079345703125 41.79380035400390625 41.635700225830078125 41.31729888916015625 41.007598876953125 40.729900360107421875 40.452098846435546875 40.1743011474609375 39.8964996337890625 39.6194000244140625 39.3415985107421875 39.063201904296875 39.026599884033203125 39.026599884033203125 39.02719879150390625 39.02719879150390625 39.027801513671875 39.027801513671875 39.027801513671875 39.028400421142578125 39.028400421142578125 39.02899932861328125 39.02899932861328125 39.029598236083984375 39.06620025634765625 39.234798431396484375 39.4040985107421875 39.5727996826171875 39.742000579833984375 39.9113006591796875 40.0800018310546875 40.24919891357421875 40.41790008544921875 40.587100982666015625 40.755199432373046875 40.922698974609375 40.95040130615234375 40.953998565673828125 40.958099365234375 40.96160125732421875 40.965198516845703125 40.96929931640625 40.9739990234375 40.981098175048828125 40.988201141357421875 40.994701385498046875 41.00170135498046875 41.006999969482421875 41.011798858642578125 41.017101287841796875 41.021800994873046875 41.027099609375 41.034801483154296875 41.046001434326171875 41.056598663330078125 41.067798614501953125 41.078998565673828125 41.090198516845703125 41.100799560546875 41.129100799560546875 41.168598175048828125 41.20819854736328125 41.247699737548828125 41.30899810791015625 41.314899444580078125 41.32080078125 41.327301025390625 41.33319854736328125 41.339099884033203125 41.345600128173828125 41.35150146484375 41.35739898681640625 41.363800048828125 41.369701385498046875 41.382099151611328125 41.394500732421875 41.406299591064453125 41.418701171875 41.43109893798828125 41.443500518798828125 41.455898284912109375 41.465900421142578125 41.475299835205078125 41.48529815673828125 41.495998382568359375 41.50659942626953125 41.5166015625 41.52719879150390625 41.537200927734375 41.547901153564453125
42.317501068115234375 42.31510162353515625 42.312801361083984375 42.310398101806640625 42.307498931884765625 42.3050994873046875 42.301601409912109375 42.29740142822265625 42.29270172119140625 42.287998199462890625 42.27500152587890625 42.251399993896484375 42.22840118408203125 42.204799652099609375 42.181301116943359375 42.1576995849609375 42.13410186767578125 42.1110992431640625 42.08750152587890625 42.063899993896484375 42.0402984619140625 42.017299652099609375 41.9936981201171875 41.97010040283203125 41.946498870849609375 41.922901153564453125 41.89929962158203125 41.8751983642578125 41.851001739501953125 41.826801300048828125 41.802600860595703125 41.70059967041015625 41.382099151611328125 41.064300537109375 40.745800018310546875 40.45149993896484375 40.1743011474609375 39.8964996337890625 39.618801116943359375 39.340999603271484375 39.063201904296875 39.02719879150390625 39.027801513671875 39.027801513671875 39.027801513671875 39.028400421142578125 39.028400421142578125 39.02899932861328125 39.02899932861328125 39.02899932861328125 39.029598236083984375 39.029598236083984375 39.030200958251953125 39.036701202392578125 39.205898284912109375 39.374599456787109375 39.5438995361328125 39.71250152587890625 39.881801605224609375 40.0511016845703125 40.219699859619140625 40.38899993896484375 40.55770111083984375 40.71160125732421875 40.8489990234375 40.948699951171875 40.95220184326171875 40.955699920654296875 40.95989990234375 40.96340179443359375 40.967498779296875 40.97460174560546875 40.981098175048828125 40.988201141357421875 40.994098663330078125 40.998798370361328125 41.004100799560546875 41.008800506591796875 41.01409912109375 41.018798828125 41.02590179443359375 41.0364990234375 41.047698974609375 41.05889892578125 41.070201873779296875 41.080799102783203125 41.091999053955078125 41.103199005126953125 41.123798370361328125 41.163299560546875 41.202800750732421875 41.242401123046875 41.31079864501953125 41.316699981689453125 41.323200225830078125 41.3291015625 41.33499908447265625 41.341400146484375 41.347301483154296875 41.353199005126953125 41.359699249267578125 41.3656005859375 41.372100830078125 41.383899688720703125 41.39630126953125 41.40869903564453125 41.421100616455078125 41.433399200439453125 41.445201873779296875 41.45529937744140625 41.465301513671875 41.475299835205078125 41.48529815673828125 41.49539947509765625 41.506000518798828125 41.5166015625 41.526599884033203125 41.537200927734375 41.547298431396484375
42.325199127197265625 42.322200775146484375 42.31980133056640625 42.317501068115234375 42.31510162353515625 42.312198638916015625 42.3079986572265625 42.3032989501953125 42.2985992431640625 42.294498443603515625 42.284999847412109375 42.261501312255859375 42.238498687744140625 42.214900970458984375 42.1912994384765625 42.16770172119140625 42.1446990966796875 42.12110137939453125 42.097499847412109375 42.0738983154296875 42.05030059814453125 42.027301788330078125 42.00370025634765625 41.980098724365234375 41.956600189208984375 41.932399749755859375 41.908199310302734375 41.883998870849609375 41.859798431396484375 41.83570098876953125 41.81150054931640625 41.765499114990234375 41.44699859619140625 41.129100799560546875 40.810699462890625 40.492198944091796875 40.17369842529296875 39.895900726318359375 39.618198394775390625 39.340999603271484375 39.063201904296875 39.027801513671875 39.028400421142578125 39.028400421142578125 39.028400421142578125 39.02899932861328125 39.02899932861328125 39.029598236083984375 39.029598236083984375 39.029598236083984375 39.030200958251953125 39.030200958251953125 39.03079986572265625 39.03079986572265625 39.17639923095703125 39.345699310302734375 39.514400482177734375 39.68360137939453125 39.852298736572265625 40.02159881591796875 40.1902008056640625 40.331798553466796875 40.46920013427734375 40.60720062255859375 40.744598388671875 40.881999969482421875 40.95040130615234375 40.953998565673828125 40.958099365234375 40.96160125732421875 40.967498779296875 40.97460174560546875 40.981098175048828125 40.986400604248046875 40.991100311279296875 40.99639892578125 41.0010986328125 41.006500244140625 41.011199951171875 41.016498565673828125 41.027698516845703125 41.038898468017578125 41.04949951171875 41.060699462890625 41.0718994140625 41.083099365234375 41.093700408935546875 41.104900360107421875 41.118499755859375 41.158000946044921875 41.197498321533203125 41.23709869384765625 41.3125 41.319000244140625 41.324901580810546875 41.330799102783203125 41.337299346923828125 41.34320068359375 41.34909820556640625 41.35559844970703125 41.361499786376953125 41.368000030517578125 41.3739013671875 41.38629913330078125 41.398601531982421875 41.410400390625 41.42279815673828125 41.435199737548828125 41.445201873779296875 41.45529937744140625 41.465301513671875 41.475299835205078125 41.484699249267578125 41.49539947509765625 41.506000518798828125 41.51599884033203125 41.526599884033203125 41.53659820556640625 41.54840087890625
42.3321990966796875 42.329898834228515625 42.3274993896484375 42.3246002197265625 42.322200775146484375 42.318698883056640625 42.313899993896484375 42.309200286865234375 42.3050994873046875 42.3003997802734375 42.295101165771484375 42.2714996337890625 42.248500823974609375 42.2248992919921875 42.20130157470703125 42.177700042724609375 42.15470123291015625 42.131099700927734375 42.1074981689453125 42.08390045166015625 42.060901641845703125 42.0373992919921875 42.0131988525390625 41.98960113525390625 41.96540069580078125 41.94120025634765625 41.91699981689453125 41.8928985595703125 41.8686981201171875 41.844501495361328125 41.820301055908203125 41.796100616455078125 41.51190185546875 41.194000244140625 40.875499725341796875 40.557098388671875 40.2386016845703125 39.920101165771484375 39.618198394775390625 39.34040069580078125 39.06259918212890625 39.028400421142578125 39.02899932861328125 39.02899932861328125 39.029598236083984375 39.029598236083984375 39.029598236083984375 39.030200958251953125 39.030200958251953125 39.03079986572265625 39.03079986572265625 39.03079986572265625 39.031398773193359375 39.031398773193359375 39.146999359130859375 39.31620025634765625 39.485500335693359375 39.6540985107421875 39.814601898193359375 39.95259857177734375 40.090000152587890625 40.2274017333984375 40.365398406982421875 40.50279998779296875 40.640201568603515625 40.777599334716796875 40.915599822998046875 40.95220184326171875 40.956298828125 40.96099853515625 40.96810150146484375 40.973400115966796875 40.978099822998046875 40.983501434326171875 40.988201141357421875 40.993499755859375 40.998199462890625 41.00350189208984375 41.00820159912109375 41.018798828125 41.029499053955078125 41.040699005126953125 41.051898956298828125 41.063098907470703125 41.073699951171875 41.08489990234375 41.096099853515625 41.1072998046875 41.117900848388671875 41.152698516845703125 41.19219970703125 41.238201141357421875 41.314899444580078125 41.32080078125 41.32669830322265625 41.33319854736328125 41.339099884033203125 41.345001220703125 41.35150146484375 41.35739898681640625 41.363800048828125 41.369701385498046875 41.375598907470703125 41.38800048828125 41.40039825439453125 41.412799835205078125 41.425201416015625 41.435199737548828125 41.444599151611328125 41.454700469970703125 41.46469879150390625 41.474700927734375 41.484699249267578125 41.49539947509765625 41.505401611328125 41.51599884033203125 41.5260009765625 41.537799835205078125 41.548999786376953125
42.339298248291015625 42.3368988037109375 42.334598541259765625 42.3321990966796875 42.3292999267578125 42.3246002197265625 42.31980133056640625 42.315700531005859375 42.311000823974609375 42.306301116943359375 42.3022003173828125 42.282100677490234375 42.2584991455078125 42.23490142822265625 42.211299896240234375 42.1876983642578125 42.164699554443359375 42.141101837158203125 42.1175994873046875 42.09400177001953125 42.070400238037109375 42.046199798583984375 42.021999359130859375 41.997798919677734375 41.974201202392578125 41.950099945068359375 41.925899505615234375 41.901699066162109375 41.877498626708984375 41.853298187255859375 41.82920074462890625 41.80500030517578125 41.576801300048828125 41.25830078125 40.940399169921875 40.621898651123046875 40.303501129150390625 39.9850006103515625 39.666500091552734375 39.34870147705078125 39.06259918212890625 39.02899932861328125 39.029598236083984375 39.029598236083984375 39.030200958251953125 39.030200958251953125 39.030200958251953125 39.03079986572265625 39.03079986572265625 39.031398773193359375 39.031398773193359375 39.031398773193359375 39.032001495361328125 39.032001495361328125 39.118099212646484375 39.286701202392578125 39.435298919677734375 39.5727996826171875 39.710201263427734375 39.848201751708984375 39.985599517822265625 40.1230010986328125 40.2610015869140625 40.39839935302734375 40.535800933837890625 40.673801422119140625 40.811199188232421875 40.948699951171875 40.954601287841796875 40.960498809814453125 40.965801239013671875 40.970500946044921875 40.975799560546875 40.980499267578125 40.98580169677734375 40.99050140380859375 40.995800018310546875 41.000598907470703125 41.0093994140625 41.020599365234375 41.03179931640625 41.042400360107421875 41.053600311279296875 41.064800262451171875 41.076000213623046875 41.086700439453125 41.097900390625 41.109100341796875 41.12030029296875 41.147998809814453125 41.1875 41.240001678466796875 41.316699981689453125 41.322601318359375 41.3291015625 41.33499908447265625 41.340801239013671875 41.347301483154296875 41.353199005126953125 41.359699249267578125 41.3656005859375 41.37149810791015625 41.37799835205078125 41.390399932861328125 41.40219879150390625 41.414600372314453125 41.42459869384765625 41.434600830078125 41.444599151611328125 41.454700469970703125 41.46469879150390625 41.474700927734375 41.48419952392578125 41.494800567626953125 41.505401611328125 41.515399932861328125 41.52719879150390625 41.53839874267578125 41.550201416015625
42.3470001220703125 42.344600677490234375 42.341701507568359375 42.339298248291015625 42.335201263427734375 42.33100128173828125 42.32630157470703125 42.32160186767578125 42.316898345947265625 42.312801361083984375 42.3079986572265625 42.2920989990234375 42.26850128173828125 42.244899749755859375 42.221401214599609375 42.198398590087890625 42.174800872802734375 42.1511993408203125 42.12760162353515625 42.10340118408203125 42.07920074462890625 42.05500030517578125 42.0308990478515625 42.0066986083984375 41.9824981689453125 41.95890045166015625 41.93470001220703125 41.9105987548828125 41.8863983154296875 41.862201690673828125 41.838001251220703125 41.813800811767578125 41.6416015625 41.323200225830078125 41.005298614501953125 40.686798095703125 40.3683013916015625 40.049900054931640625 39.7313995361328125 39.412899017333984375 39.108600616455078125 39.029598236083984375 39.030200958251953125 39.030200958251953125 39.03079986572265625 39.03079986572265625 39.03079986572265625 39.031398773193359375 39.031398773193359375 39.032001495361328125 39.032001495361328125 39.032001495361328125 39.032501220703125 39.032501220703125 39.077999114990234375 39.21540069580078125 39.35340118408203125 39.49140167236328125 39.629398345947265625 39.767398834228515625 39.9048004150390625 40.0428009033203125 40.1808013916015625 40.3188018798828125 40.456798553466796875 40.59420013427734375 40.73220062255859375 40.87020111083984375 40.952800750732421875 40.957500457763671875 40.962799072265625 40.967498779296875 40.97280120849609375 40.97760009765625 40.982898712158203125 40.987598419189453125 40.992900848388671875 41.000598907470703125 41.011798858642578125 41.02239990234375 41.033599853515625 41.0447998046875 41.055999755859375 41.066600799560546875 41.077800750732421875 41.089000701904296875 41.100200653076171875 41.11080169677734375 41.12200164794921875 41.1427001953125 41.182201385498046875 41.24179840087890625 41.318401336669921875 41.324901580810546875 41.330799102783203125 41.336700439453125 41.34320068359375 41.34909820556640625 41.35559844970703125 41.361499786376953125 41.367401123046875 41.3739013671875 41.37979888916015625 41.392200469970703125 41.404499053955078125 41.414600372314453125 41.42459869384765625 41.434600830078125 41.44409942626953125 41.4541015625 41.464099884033203125 41.47409820556640625 41.48419952392578125 41.494800567626953125 41.50479888916015625 41.5166015625 41.527801513671875 41.539600372314453125 41.550800323486328125
42.351100921630859375 42.3516998291015625 42.349300384521484375 42.345798492431640625 42.341701507568359375 42.3368988037109375 42.3321990966796875 42.3274993896484375 42.323398590087890625 42.318698883056640625 42.313899993896484375 42.3022003173828125 42.278598785400390625 42.255001068115234375 42.2313995361328125 42.208400726318359375 42.1847991943359375 42.1605987548828125 42.1363983154296875 42.112300872802734375 42.088100433349609375 42.063899993896484375 42.039699554443359375 42.015499114990234375 41.99140167236328125 41.96720123291015625 41.943599700927734375 41.919399261474609375 41.895198822021484375 41.870998382568359375 41.84690093994140625 41.82270050048828125 41.706501007080078125 41.38800048828125 41.070201873779296875 40.75170135498046875 40.433200836181640625 40.1147003173828125 39.796298980712890625 39.4777984619140625 39.225399017333984375 39.03079986572265625 39.03079986572265625 39.03079986572265625 39.031398773193359375 39.031398773193359375 39.032001495361328125 39.032001495361328125 39.032001495361328125 39.032501220703125 39.032501220703125 39.033100128173828125 39.033100128173828125 39.033100128173828125 39.05139923095703125 39.188800811767578125 39.326801300048828125 39.464801788330078125 39.6027984619140625 39.7407989501953125 39.8787994384765625 40.016300201416015625 40.154300689697265625 40.292301177978515625 40.430301666259765625 40.56829833984375 40.704498291015625 40.802398681640625 40.899700164794921875 40.95510101318359375 40.95989990234375 40.965198516845703125 40.969898223876953125 40.975200653076171875 40.979900360107421875 40.985198974609375 40.99169921875 41.002300262451171875 41.013500213623046875 41.024700164794921875 41.035400390625 41.046600341796875 41.05780029296875 41.069000244140625 41.079601287841796875 41.090801239013671875 41.102001190185546875 41.113201141357421875 41.123798370361328125 41.137401580810546875 41.176898956298828125 41.244098663330078125 41.32080078125 41.32669830322265625 41.332599639892578125 41.339099884033203125 41.345001220703125 41.35150146484375 41.35739898681640625 41.363300323486328125 41.369701385498046875 41.375598907470703125 41.382099151611328125 41.394500732421875 41.40399932861328125 41.41400146484375 41.423999786376953125 41.43399810791015625 41.44409942626953125 41.4541015625 41.464099884033203125 41.47409820556640625 41.48419952392578125 41.49420166015625 41.506000518798828125 41.517200469970703125 41.528400421142578125 41.54019927978515625 41.55139923095703125
42.35520172119140625 42.355800628662109375 42.3563995361328125 42.352298736572265625 42.347599029541015625 42.342800140380859375 42.3386993408203125 42.3339996337890625 42.3292999267578125 42.3246002197265625 42.320400238037109375 42.312198638916015625 42.288600921630859375 42.2649993896484375 42.24140167236328125 42.217800140380859375 42.193599700927734375 42.169498443603515625 42.14530181884765625 42.12110137939453125 42.09690093994140625 42.07270050048828125 42.0485992431640625 42.0243988037109375 42.0001983642578125 41.976001739501953125 41.951801300048828125 41.92819976806640625 41.9040985107421875 41.879901885986328125 41.855701446533203125 41.831501007080078125 41.77140045166015625 41.452899932861328125 41.134998321533203125 40.816600799560546875 40.49810028076171875 40.179599761962890625 39.86119842529296875 39.5904998779296875 39.34220123291015625 39.094501495361328125 39.031398773193359375 39.031398773193359375 39.032001495361328125 39.032001495361328125 39.032501220703125 39.032501220703125 39.032501220703125 39.033100128173828125 39.033100128173828125 39.03369903564453125 39.03369903564453125 39.03369903564453125 39.0343017578125 39.162899017333984375 39.30030059814453125 39.43830108642578125 39.57630157470703125 39.714298248291015625 39.852298736572265625 39.9897003173828125 40.1277008056640625 40.2657012939453125 40.4037017822265625 40.53350067138671875 40.63140106201171875 40.72869873046875 40.826000213623046875 40.92330169677734375 40.95690155029296875 40.962200164794921875 40.966899871826171875 40.972301483154296875 40.977001190185546875 40.9822998046875 40.993499755859375 41.00469970703125 41.015300750732421875 41.026500701904296875 41.037700653076171875 41.048900604248046875 41.05950164794921875 41.07070159912109375 41.08190155029296875 41.09320068359375 41.103801727294921875 41.115001678466796875 41.126201629638671875 41.137401580810546875 41.171600341796875 41.245899200439453125 41.322601318359375 41.32849884033203125 41.33499908447265625 41.340801239013671875 41.347301483154296875 41.353199005126953125 41.359699249267578125 41.3656005859375 41.37149810791015625 41.37799835205078125 41.383899688720703125 41.393901824951171875 41.40399932861328125 41.41400146484375 41.423999786376953125 41.43399810791015625 41.443500518798828125 41.45349884033203125 41.4635009765625 41.473499298095703125 41.483600616455078125 41.49539947509765625 41.50659942626953125 41.51779937744140625 41.529598236083984375 41.540798187255859375 41.552600860595703125
42.35990142822265625 42.360500335693359375 42.3610992431640625 42.356998443603515625 42.352298736572265625 42.348201751708984375 42.34400177001953125 42.339900970458984375 42.335201263427734375 42.33100128173828125 42.32630157470703125 42.32160186767578125 42.2985992431640625 42.2743988037109375 42.250301361083984375 42.226100921630859375 42.2024993896484375 42.1782989501953125 42.1540985107421875 42.129901885986328125 42.105800628662109375 42.081600189208984375 42.057399749755859375 42.033199310302734375 42.008998870849609375 41.98490142822265625 41.96070098876953125 41.937099456787109375 41.912899017333984375 41.888698577880859375 41.86460113525390625 41.84040069580078125 41.81620025634765625 41.51779937744140625 41.199298858642578125 40.88140106201171875 40.562999725341796875 40.24449920654296875 39.955501556396484375 39.70780181884765625 39.459499359130859375 39.211200714111328125 39.032001495361328125 39.032001495361328125 39.032501220703125 39.032501220703125 39.033100128173828125 39.033100128173828125 39.033100128173828125 39.03369903564453125 39.03369903564453125 39.0343017578125 39.0343017578125 39.0343017578125 39.034900665283203125 39.13629913330078125 39.27429962158203125 39.411800384521484375 39.549800872802734375 39.687801361083984375 39.825801849365234375 39.96379852294921875 40.101200103759765625 40.239200592041015625 40.362400054931640625 40.460300445556640625 40.55770111083984375 40.654998779296875 40.752300262451171875 40.850200653076171875 40.947498321533203125 40.959300994873046875 40.964000701904296875 40.96929931640625 40.9739990234375 40.984600067138671875 40.99530029296875 41.006500244140625 41.0177001953125 41.028900146484375 41.039501190185546875 41.050701141357421875 41.061901092529296875 41.072498321533203125 41.083698272705078125 41.094898223876953125 41.106098175048828125 41.11669921875 41.127899169921875 41.13919830322265625 41.171001434326171875 41.24829864501953125 41.324298858642578125 41.330799102783203125 41.336700439453125 41.342601776123046875 41.34909820556640625 41.354999542236328125 41.361499786376953125 41.367401123046875 41.37329864501953125 41.37979888916015625 41.38449859619140625 41.394500732421875 41.404499053955078125 41.414600372314453125 41.42459869384765625 41.434600830078125 41.444599151611328125 41.4541015625 41.464099884033203125 41.47409820556640625 41.48419952392578125 41.49539947509765625 41.507198333740234375 41.518398284912109375 41.530200958251953125 41.541400909423828125 41.55319976806640625
42.3647003173828125 42.365299224853515625 42.365299224853515625 42.3610992431640625 42.356998443603515625 42.352901458740234375 42.348201751708984375 42.34400177001953125 42.339900970458984375 42.3358001708984375 42.33100128173828125 42.3274993896484375 42.307498931884765625 42.283298492431640625 42.25910186767578125 42.23490142822265625 42.21070098876953125 42.187099456787109375 42.162998199462890625 42.13880157470703125 42.11460113525390625 42.09040069580078125 42.06620025634765625 42.0420989990234375 42.0178985595703125 41.9936981201171875 41.969501495361328125 41.945301055908203125 41.9217987060546875 41.8975982666015625 41.873401641845703125 41.849201202392578125 41.825000762939453125 41.582599639892578125 41.26419830322265625 40.946300506591796875 40.62779998779296875 40.31999969482421875 40.07289886474609375 39.8246002197265625 39.57630157470703125 39.327999114990234375 39.08029937744140625 39.032501220703125 39.033100128173828125 39.033100128173828125 39.03369903564453125 39.03369903564453125 39.03369903564453125 39.0343017578125 39.0343017578125 39.034900665283203125 39.034900665283203125 39.03549957275390625 39.03549957275390625 39.109798431396484375 39.247798919677734375 39.385799407958984375 39.52320098876953125 39.66120147705078125 39.799198150634765625 39.937198638916015625 40.075199127197265625 40.19139862060546875 40.28929901123046875 40.386600494384765625 40.483898162841796875 40.58119964599609375 40.67910003662109375 40.776500701904296875 40.873798370361328125 40.956298828125 40.96160125732421875 40.966400146484375 40.975200653076171875 40.986400604248046875 40.997600555419921875 41.00820159912109375 41.01940155029296875 41.03060150146484375 41.04180145263671875 41.052501678466796875 41.063701629638671875 41.074901580810546875 41.086101531982421875 41.096698760986328125 41.107898712158203125 41.119098663330078125 41.130298614501953125 41.140899658203125 41.173900604248046875 41.25299835205078125 41.326099395751953125 41.332599639892578125 41.3385009765625 41.34439849853515625 41.35089874267578125 41.356800079345703125 41.363300323486328125 41.36920166015625 41.37509918212890625 41.380401611328125 41.385101318359375 41.395099639892578125 41.405101776123046875 41.41519927978515625 41.425201416015625 41.435199737548828125 41.445201873779296875 41.454700469970703125 41.46469879150390625 41.474700927734375 41.484699249267578125 41.495998382568359375 41.507801055908203125 41.519001007080078125 41.530200958251953125 41.54199981689453125 41.55319976806640625
42.3694000244140625 42.3694000244140625 42.369998931884765625 42.3657989501953125 42.3610992431640625 42.356998443603515625 42.352901458740234375 42.34870147705078125 42.34400177001953125 42.339900970458984375 42.336399078369140625 42.33280181884765625 42.3162994384765625 42.2920989990234375 42.2678985595703125 42.243801116943359375 42.219600677490234375 42.195400238037109375 42.1717987060546875 42.1475982666015625 42.123500823974609375 42.099300384521484375 42.075099945068359375 42.050899505615234375 42.026699066162109375 42.00260162353515625 41.97840118408203125 41.95420074462890625 41.93000030517578125 41.906398773193359375 41.882198333740234375 41.85810089111328125 41.83390045166015625 41.64749908447265625 41.3291015625 41.011199951171875 40.692699432373046875 40.437900543212890625 40.189601898193359375 39.94139862060546875 39.693698883056640625 39.445400238037109375 39.197101593017578125 39.033100128173828125 39.03369903564453125 39.03369903564453125 39.0343017578125 39.0343017578125 39.0343017578125 39.034900665283203125 39.034900665283203125 39.03549957275390625 39.03549957275390625 39.036098480224609375 39.036098480224609375 39.083301544189453125 39.2212982177734375 39.3592987060546875 39.496700286865234375 39.634700775146484375 39.772701263427734375 39.910701751708984375 40.0204010009765625 40.1183013916015625 40.21559906005859375 40.312900543212890625 40.410198211669921875 40.508098602294921875 40.60540008544921875 40.702701568603515625 40.799999237060546875 40.897899627685546875 40.958698272705078125 40.966400146484375 40.97760009765625 40.988201141357421875 40.999401092529296875 41.010601043701171875 41.021800994873046875 41.032398223876953125 41.044200897216796875 41.055400848388671875 41.066600799560546875 41.077800750732421875 41.089000701904296875 41.100200653076171875 41.11199951171875 41.123199462890625 41.1343994140625 41.145599365234375 41.178699493408203125 41.255298614501953125 41.327899932861328125 41.334400177001953125 41.340301513671875 41.34619903564453125 41.35260009765625 41.358501434326171875 41.365001678466796875 41.370899200439453125 41.376201629638671875 41.381000518798828125 41.385700225830078125 41.39569854736328125 41.40570068359375 41.415699005126953125 41.425800323486328125 41.43579864501953125 41.44580078125 41.455898284912109375 41.465301513671875 41.475299835205078125 41.484699249267578125 41.49649810791015625 41.507801055908203125 41.519500732421875 41.53079986572265625 41.542499542236328125 41.553798675537109375
42.373500823974609375 42.3740997314453125 42.3740997314453125 42.369998931884765625 42.3657989501953125 42.361698150634765625 42.356998443603515625 42.352901458740234375 42.34870147705078125 42.3451995849609375 42.341701507568359375 42.3386993408203125 42.3246002197265625 42.3003997802734375 42.2761993408203125 42.25260162353515625 42.22840118408203125 42.2042999267578125 42.1800994873046875 42.1558990478515625 42.13230133056640625 42.10810089111328125 42.08390045166015625 42.0597991943359375 42.0355987548828125 42.0113983154296875 41.987201690673828125 41.963001251220703125 41.938899993896484375 41.914699554443359375 41.891101837158203125 41.866901397705078125 41.842700958251953125 41.712398529052734375 41.393901824951171875 41.076000213623046875 40.802398681640625 40.555301666259765625 40.30699920654296875 40.0587005615234375 39.810398101806640625 39.562099456787109375 39.313899993896484375 39.06620025634765625 39.0343017578125 39.0343017578125 39.034900665283203125 39.034900665283203125 39.03549957275390625 39.03549957275390625 39.03549957275390625 39.036098480224609375 39.036098480224609375 39.036701202392578125 39.036701202392578125 39.05670166015625 39.194698333740234375 39.332698822021484375 39.470699310302734375 39.60810089111328125 39.74610137939453125 39.849399566650390625 39.947299957275390625 40.0446014404296875 40.14189910888671875 40.239200592041015625 40.337100982666015625 40.434398651123046875 40.53170013427734375 40.629001617431640625 40.726898193359375 40.82720184326171875 40.944499969482421875 40.96929931640625 40.980499267578125 40.992298126220703125 41.00350189208984375 41.01470184326171875 41.02590179443359375 41.03710174560546875 41.04830169677734375 41.060100555419921875 41.071300506591796875 41.082500457763671875 41.093700408935546875 41.104900360107421875 41.116199493408203125 41.127899169921875 41.13919830322265625 41.15039825439453125 41.183399200439453125 41.257099151611328125 41.329601287841796875 41.336101531982421875 41.341999053955078125 41.348499298095703125 41.354400634765625 41.36029815673828125 41.36679840087890625 41.37149810791015625 41.376800537109375 41.381500244140625 41.38629913330078125 41.39630126953125 41.406299591064453125 41.416301727294921875 41.42639923095703125 41.4364013671875 41.446399688720703125 41.455898284912109375 41.465900421142578125 41.47589874267578125 41.48529815673828125 41.497100830078125 41.50830078125 41.520099639892578125 41.531299591064453125 41.542499542236328125 41.55429840087890625
42.378200531005859375 42.378200531005859375 42.3787994384765625 42.374698638916015625 42.369998931884765625 42.3657989501953125 42.361698150634765625 42.357601165771484375 42.354099273681640625 42.350498199462890625 42.347599029541015625 42.34400177001953125 42.33280181884765625 42.309200286865234375 42.284999847412109375 42.260898590087890625 42.236698150634765625 42.21250152587890625 42.188899993896484375 42.164699554443359375 42.140598297119140625 42.11640167236328125 42.09220123291015625 42.068599700927734375 42.044399261474609375 42.020198822021484375 41.99610137939453125 41.97190093994140625 41.94770050048828125 41.92350006103515625 41.89929962158203125 41.87580108642578125 41.85160064697265625 41.777301788330078125 41.45880126953125 41.166900634765625 40.920398712158203125 40.672100067138671875 40.423801422119140625 40.17549896240234375 39.9272003173828125 39.679500579833984375 39.4311981201171875 39.18289947509765625 39.034900665283203125 39.034900665283203125 39.03549957275390625 39.03549957275390625 39.036098480224609375 39.036098480224609375 39.036098480224609375 39.036701202392578125 39.036701202392578125 39.03730010986328125 39.03730010986328125 39.037899017333984375 39.168201446533203125 39.3061981201171875 39.4441986083984375 39.58100128173828125 39.6782989501953125 39.775600433349609375 39.873500823974609375 39.970798492431640625 40.06819915771484375 40.16609954833984375 40.263401031494140625 40.362400054931640625 40.46739959716796875 40.573001861572265625 40.691501617431640625 40.81420135498046875 40.9375 40.96929931640625 40.9822998046875 40.995800018310546875 41.00820159912109375 41.01940155029296875 41.03060150146484375 41.04180145263671875 41.05300140380859375 41.064300537109375 41.076000213623046875 41.087299346923828125 41.098499298095703125 41.109699249267578125 41.120899200439453125 41.132099151611328125 41.143901824951171875 41.155101776123046875 41.185699462890625 41.258899688720703125 41.331401824951171875 41.33789825439453125 41.343799591064453125 41.350299835205078125 41.356201171875 41.36209869384765625 41.367401123046875 41.372100830078125 41.377399444580078125 41.382099151611328125 41.38690185546875 41.396900177001953125 41.40689849853515625 41.416900634765625 41.426998138427734375 41.437000274658203125 41.446399688720703125 41.456401824951171875 41.46649932861328125 41.47589874267578125 41.48590087890625 41.497100830078125 41.508899688720703125 41.520099639892578125 41.53189849853515625 41.54309844970703125 41.553798675537109375
42.3824005126953125 42.382900238037109375 42.382900238037109375 42.3787994384765625 42.374698638916015625 42.370601654052734375 42.36640167236328125 42.3628997802734375 42.359401702880859375 42.3563995361328125 42.352901458740234375 42.3498992919921875 42.341701507568359375 42.317501068115234375 42.293300628662109375 42.2696990966796875 42.2454986572265625 42.221401214599609375 42.197200775146484375 42.173000335693359375 42.1493988037109375 42.1251983642578125 42.101001739501953125 42.076900482177734375 42.052700042724609375 42.0290985107421875 42.004901885986328125 41.980701446533203125 41.956600189208984375 41.932399749755859375 41.908199310302734375 41.883998870849609375 41.860401153564453125 41.836200714111328125 41.531299591064453125 41.284801483154296875 41.03710174560546875 40.788799285888671875 40.54109954833984375 40.29290008544921875 40.0446014404296875 39.796298980712890625 39.548000335693359375 39.299701690673828125 39.051998138427734375 39.03549957275390625 39.036098480224609375 39.036098480224609375 39.036701202392578125 39.036701202392578125 39.036701202392578125 39.03730010986328125 39.03730010986328125 39.037899017333984375 39.037899017333984375 39.03839874267578125 39.1416015625 39.27970123291015625 39.409999847412109375 39.50730133056640625 39.6045989990234375 39.7024993896484375 39.799800872802734375 39.8983001708984375 40.003299713134765625 40.10829925537109375 40.213199615478515625 40.31819915771484375 40.43849945068359375 40.561798095703125 40.68450164794921875 40.807098388671875 40.929798126220703125 40.96929931640625 40.9822998046875 40.99530029296875 41.008800506591796875 41.021800994873046875 41.034801483154296875 41.046600341796875 41.05780029296875 41.069000244140625 41.080799102783203125 41.091999053955078125 41.103199005126953125 41.114398956298828125 41.125598907470703125 41.136798858642578125 41.148601531982421875 41.159801483154296875 41.188701629638671875 41.260601043701171875 41.33319854736328125 41.33969879150390625 41.345600128173828125 41.352100372314453125 41.358001708984375 41.362701416015625 41.368000030517578125 41.372699737548828125 41.37799835205078125 41.382701873779296875 41.387401580810546875 41.39749908447265625 41.407501220703125 41.417499542236328125 41.427501678466796875 41.43759918212890625 41.44699859619140625 41.457000732421875 41.46649932861328125 41.47650146484375 41.486499786376953125 41.497699737548828125 41.50949859619140625 41.52069854736328125 41.53189849853515625 41.542499542236328125 41.55319976806640625
42.3871002197265625 42.3871002197265625 42.387699127197265625 42.3834991455078125 42.379398345947265625 42.374698638916015625 42.3712005615234375 42.368198394775390625 42.365299224853515625 42.361698150634765625 42.358798980712890625 42.35520172119140625 42.3498992919921875 42.32630157470703125 42.3022003173828125 42.2779998779296875 42.2537994384765625 42.2295989990234375 42.20600128173828125 42.18180084228515625 42.1576995849609375 42.1334991455078125 42.1092987060546875 42.08570098876953125 42.06150054931640625 42.0373992919921875 42.0131988525390625 41.9889984130859375 41.96540069580078125 41.94120025634765625 41.91699981689453125 41.8928985595703125 41.86930084228515625 41.84510040283203125 41.64929962158203125 41.40219879150390625 41.154499053955078125 40.906200408935546875 40.657901763916015625 40.40959930419921875 40.1613006591796875 39.912998199462890625 39.665401458740234375 39.4170989990234375 39.16880035400390625 39.036098480224609375 39.036701202392578125 39.036701202392578125 39.03730010986328125 39.03730010986328125 39.03730010986328125 39.037899017333984375 39.037899017333984375 39.03839874267578125 39.03839874267578125 39.03900146484375 39.115100860595703125 39.2389984130859375 39.336299896240234375 39.43360137939453125 39.538600921630859375 39.644100189208984375 39.7490997314453125 39.854099273681640625 39.95909881591796875 40.063999176025390625 40.1855010986328125 40.30879974365234375 40.431400299072265625 40.55410003662109375 40.676799774169921875 40.79949951171875 40.922698974609375 40.96929931640625 40.9822998046875 40.99530029296875 41.008800506591796875 41.021800994873046875 41.034801483154296875 41.047698974609375 41.061298370361328125 41.073699951171875 41.08489990234375 41.096698760986328125 41.107898712158203125 41.119098663330078125 41.130298614501953125 41.141498565673828125 41.152698516845703125 41.164501190185546875 41.193401336669921875 41.262401580810546875 41.33499908447265625 41.341400146484375 41.347301483154296875 41.353801727294921875 41.358501434326171875 41.363300323486328125 41.36859893798828125 41.37329864501953125 41.37860107421875 41.38330078125 41.388599395751953125 41.398101806640625 41.408100128173828125 41.41809844970703125 41.4281005859375 41.43759918212890625 41.447601318359375 41.457599639892578125 41.467098236083984375 41.477100372314453125 41.486499786376953125 41.49829864501953125 41.50949859619140625 41.52130126953125 41.53189849853515625 41.54199981689453125 41.552600860595703125
42.391201019287109375 42.3917999267578125 42.392398834228515625 42.387699127197265625 42.3834991455078125 42.380001068115234375 42.377101898193359375 42.373500823974609375 42.370601654052734375 42.367000579833984375 42.364101409912109375 42.3610992431640625 42.357601165771484375 42.3368988037109375 42.312801361083984375 42.2891998291015625 42.2649993896484375 42.24140167236328125 42.21720123291015625 42.193599700927734375 42.169498443603515625 42.14530181884765625 42.121700286865234375 42.097499847412109375 42.0738983154296875 42.049701690673828125 42.02610015869140625 42.0019989013671875 41.97840118408203125 41.95420074462890625 41.930599212646484375 41.906398773193359375 41.882801055908203125 41.860401153564453125 41.76779937744140625 41.519500732421875 41.27130126953125 41.022998809814453125 40.774700164794921875 40.52700042724609375 40.2787017822265625 40.030399322509765625 39.782100677490234375 39.5337982177734375 39.28549957275390625 39.037899017333984375 39.03730010986328125 39.03730010986328125 39.037899017333984375 39.037899017333984375 39.03839874267578125 39.03839874267578125 39.03900146484375 39.03900146484375 39.03900146484375 39.039600372314453125 39.07440185546875 39.179401397705078125 39.28440093994140625 39.389301300048828125 39.494899749755859375 39.5998992919921875 39.704898834228515625 39.8097991943359375 39.932498931884765625 40.0558013916015625 40.17839813232421875 40.3011016845703125 40.423801422119140625 40.546398162841796875 40.66970062255859375 40.792400360107421875 40.91500091552734375 40.96929931640625 40.9822998046875 40.99530029296875 41.00820159912109375 41.021800994873046875 41.034801483154296875 41.047698974609375 41.061298370361328125 41.074298858642578125 41.087299346923828125 41.100200653076171875 41.112598419189453125 41.123798370361328125 41.134998321533203125 41.146198272705078125 41.157398223876953125 41.168598175048828125 41.198101043701171875 41.264801025390625 41.336700439453125 41.34320068359375 41.34909820556640625 41.354400634765625 41.359100341796875 41.364398956298828125 41.36920166015625 41.3739013671875 41.379199981689453125 41.383899688720703125 41.38919830322265625 41.398601531982421875 41.40869903564453125 41.418701171875 41.428699493408203125 41.438201904296875 41.448200225830078125 41.457599639892578125 41.467601776123046875 41.47769927978515625 41.48709869384765625 41.4989013671875 41.510101318359375 41.52069854736328125 41.531299591064453125 41.541400909423828125 41.551998138427734375
42.395900726318359375 42.395900726318359375 42.3964996337890625 42.392398834228515625 42.38880157470703125 42.385898590087890625 42.3824005126953125 42.379398345947265625 42.3759002685546875 42.3722991943359375 42.368801116943359375 42.3657989501953125 42.363498687744140625 42.350498199462890625 42.32630157470703125 42.302700042724609375 42.278598785400390625 42.255001068115234375 42.230800628662109375 42.2071990966796875 42.1829986572265625 42.15940093994140625 42.1352996826171875 42.111698150634765625 42.08750152587890625 42.063899993896484375 42.039699554443359375 42.016101837158203125 41.991901397705078125 41.96829986572265625 41.9441986083984375 41.921199798583984375 41.89820098876953125 41.8751983642578125 41.852199554443359375 41.637500762939453125 41.388599395751953125 41.140300750732421875 40.891998291015625 40.643798828125 40.39550018310546875 40.1472015380859375 39.898899078369140625 39.6511993408203125 39.40290069580078125 39.154598236083984375 39.037899017333984375 39.037899017333984375 39.03839874267578125 39.03839874267578125 39.03900146484375 39.03900146484375 39.039600372314453125 39.039600372314453125 39.04019927978515625 39.04019927978515625 39.04019927978515625 39.13520050048828125 39.240100860595703125 39.345699310302734375 39.4506988525390625 39.55680084228515625 39.6800994873046875 39.802799224853515625 39.9253997802734375 40.048099517822265625 40.17079925537109375 40.29399871826171875 40.416698455810546875 40.539398193359375 40.661998748779296875 40.784698486328125 40.907398223876953125 40.96929931640625 40.9822998046875 40.99530029296875 41.00820159912109375 41.021800994873046875 41.034801483154296875 41.047698974609375 41.060699462890625 41.074298858642578125 41.087299346923828125 41.100200653076171875 41.113800048828125 41.126800537109375 41.13970184326171875 41.15090179443359375 41.162200927734375 41.17340087890625 41.202800750732421875 41.269500732421875 41.339099884033203125 41.345001220703125 41.349700927734375 41.354999542236328125 41.359699249267578125 41.365001678466796875 41.369701385498046875 41.374500274658203125 41.37979888916015625 41.38449859619140625 41.389801025390625 41.399799346923828125 41.4093017578125 41.419300079345703125 41.428699493408203125 41.438701629638671875 41.44879913330078125 41.45819854736328125 41.46820068359375 41.47769927978515625 41.487701416015625 41.4989013671875 41.50949859619140625 41.520099639892578125 41.53079986572265625 41.540798187255859375 41.55139923095703125
